# 3D point list with one line of data per point:
#   POINT3D_ID, X, Y, Z, R, G, B, ERROR, TRACK[] as (IMAGE_ID, POINT2D_IDX)
# Number of points: 311, mean track length: 171.77671678179601
14895 -1.0905365725240257 0.78257075936125542 -0.37286234466038137 33 40 32 1.3784465712626119 106 5834 48 5728 159 5267
14988 -1.8116737287344351 0.72891473320794631 -0.44006811598614748 33 38 34 2.0126066459317924 48 6461 47 5980 158 5199 104 5699 46 5064
14997 1.4260767896783149 0.84356755437829167 -0.33325081441555676 0 1 0 1.7089322553799704 106 6641 48 6536 105 6623 47 6459 158 6011 104 6517 46 6303 157 5903 103 6715 45 6342 156 6360 102 7061 44 6671 43 7265 155 6960 101 7204 154 7197 100 7561 42 7877
15006 -0.29184410927934401 0.59349342714788134 0.43982860028865456 19 34 29 1.7629512925706379 48 6616 159 6167 105 6708 158 6068 47 6512
51988 1.6662173391477824 -0.61747297144173041 0.43834617819096366 13 21 14 1.7582172914344116 26 1272 86 3137 139 899
15011 1.1304869019550843 0.86133308955983412 -0.40679909474754983 172 176 162 0.97189850533835653 107 4808 49 4709 48 4668 55 961 53 2986 51 1196 108 1105 108 4064 107 2883 160 2684 50 3003 49 2920 106 4003 105 3923
15037 -1.1894275679472242 0.74964413216858949 -0.44034776339008352 108 114 109 0.13867117905085946 48 1090 159 1075
15038 -0.92952496358121384 0.86316601047804786 -0.48642085785821332 29 33 32 0.98027674078358118 48 1182 110 1024 159 1101
17325 1.2859277202271306 0.87208622997076035 -0.1377097120422448 3 7 8 0.24593760558906819 158 2587 46 2752
15041 0.19222365146240281 0.75953372191904989 -0.35885085610003004 162 156 140 1.5558472604758882 107 992 159 1138 47 1161
80310 -0.98613236954630978 0.66915875303637484 0.32956572373947546 11 22 18 1.4462079873765186 124 3050 69 643 7 603 6 633 123 662 68 716
15054 1.3810422174962991 0.8547444960670304 -0.53527941302281123 233 238 232 0.95169202844956713 106 1246 159 1364 105 1175 47 1248 158 1293 104 1446 46 1317 157 1273 103 1471 45 1352 156 1447 102 1544 44 1460 155 1571 43 1635 101 1633 154 1739
81140 -1.8384385703220389 -0.46115095501615699 0.044216014458720643 225 225 233 1.9254816899728291 69 5538 7 3412 123 2954 68 3199
15055 1.3913295294514927 0.79183020288725703 -0.57719518297275685 14 16 10 1.1079441833241797 106 1247 159 1365
15057 1.2790765712542262 0.79011133706308756 -0.59580812462666821 2 6 2 1.3139161038875444 107 2912 159 1370
62916 -1.2104067769763127 -0.84682364757027018 -0.34156918903379385 131 136 131 1.1938839443426761 19 1047 79 1088 133 2905
62912 0.22835463854794349 -0.85736560631422953 -0.30000074789172865 85 86 73 1.2612734676462001 86 1447 79 1067 131 1156 76 1086
15182 -1.067154297828673 0.8693736795650695 -0.2220276364592306 28 30 27 1.3016978511071229 161 4652 159 3687 47 3928 159 4348 104 3940
78763 -1.9239282555977515 -0.47367459650872823 -0.02011848319303295 43 48 44 1.3186486496629117 125 3085 70 1071 8 869 7 857
15234 -0.80143383788903921 0.85699788484770056 0.10692625849997282 210 220 221 1.4716035778834962 48 5222 159 4334 105 4670 47 4653 46 4533 157 3491 157 4178 103 4021 45 3768 102 3022
74650 -1.6875834858025109 -0.72511418217448442 0.013862492859819492 183 188 181 0.5564920114175792 127 2853 72 973 11 835
15235 0.21208335582055152 0.83133751488139196 0.17738862956612936 141 140 121 1.4465640951828933 107 3949 159 4336 46 3754
80813 -1.7589404050238897 -0.63990973267551055 0.06613635367159125 15 26 18 1.1868510464882791 124 6596 69 6601 7 6587
15236 0.012810494956173929 0.83317180838239924 0.13858324660850721 197 206 204 1.1299821241789132 106 3961 105 4669
15268 1.2952054648570477 0.84753706381754401 -0.52074483969590624 57 62 55 1.7104365566020199 106 4778 159 4934 47 4698 158 4394 156 4686
15314 -1.3047545887135961 0.8559253094360868 -0.65084425009845548 224 234 243 1.4737936062171155 106 6209 159 5833 103 6283
15523 1.0884616848676161 0.58790904137135025 0.37387818664985745 148 150 149 0.72683294875025539 107 2772 158 2530
15321 -1.8074583308918621 0.56569921382612121 0.11072822296690679 92 99 91 1.6345143905940924 48 6533 159 5976 105 6537
74691 -1.2239327307136796 -0.8417477056771604 -0.39618017332551758 253 254 247 1.7523106664549188 127 1292 72 1338 11 1114 126 1219 71 1375 10 1001 9 1128 125 1243 8 1192
15322 -1.8074583308918621 0.56569921382612121 0.11072822296690679 92 99 91 1.6345143905940873 48 6534 159 5977 105 6538
15334 0.89215267144206778 0.77386878053273422 -0.23644250095820321 190 201 195 1.9453428546229592 48 6601 106 6702 166 7411 159 6165 107 6896 112 7922 47 6494 59 7816 115 8010 116 7819
15404 1.2304117136662474 0.84243700368391716 -0.60428499987702988 1 4 0 0.65824424053901587 160 1165 105 1234
15527 -0.85794156819888168 0.84447849182568113 -0.49265356024094781 43 47 47 0.66402715908933918 48 1181 105 2801 104 2877 44 2896
15533 1.2623313226159678 0.84847166197785284 -0.48289769927124071 122 124 111 0.73778071799540756 159 1317 105 2839 47 2926
15537 1.369362845143997 0.85393310355272356 -0.54879017030781996 25 28 19 1.5279615410107763 48 3906 159 4453 105 2878 157 3654 156 3969 102 5244 44 5424
65788 1.1507206024439613 -0.81452082657677805 0.23937000763354332 252 248 239 0.71571961179702837 18 6994 133 6466 17 6730 16 6816
66263 1.1710651553336977 -0.55506757967297637 0.62674156551968974 34 40 36 2.9523576076200149 18 6955 77 4812
15619 -0.51008176686067808 -0.71354977997142222 0.41164833171590748 32 52 50 1.4571905386483026 159 4299 105 3825 48 4607
58273 0.49061540551453986 -0.84534354579111137 -0.010849486735891535 0 0 0 1.4289511560918657 26 7656 27 7501
15623 1.0378287396367909 0.71140391017625504 0.27152081508263809 213 216 227 1.3823725502695978 47 3895 158 4265 104 4681 45 4488 157 4181 105 3871
15626 -0.0029663148198035899 0.8386316159301348 0.15582723300900325 189 195 191 2.0976836572004669 108 4032 105 3878 47 3906 158 3562
15638 1.3464558762617616 0.84914965251683328 -0.53003735593112644 16 17 9 0.61222090448553157 48 3904 105 3957 104 4071 46 3856 157 4307 103 4205 45 3919
80898 -0.48724009370276961 -0.82096889373594562 0.41531106890077779 231 242 244 1.2272261875278574 124 7419 69 7221 7 8015
15764 -1.0222652194227848 0.82930367398662119 -0.52978417976678238 0 1 0 0.58970002488529993 159 5278 105 5787 47 5672 158 5204
15789 1.7033062256205811 0.71639449049181647 0.24070628234425259 198 63 70 2.0899496199537246 157 5796 45 6228 103 6588
15790 -1.3495664103165272 0.85458776018421201 -0.17435239472520611 54 54 52 1.328204288971115 49 6079 105 6127 47 5969
15816 -0.95780454832324469 0.77902158706228875 0.23775318680397362 227 238 240 1.9937715571803951 166 6768 105 6382 158 5730 157 5641
15839 1.846655765980058 0.5722030993522309 0.33933302289912975 217 223 223 1.8898348327153418 48 6576 105 6654 104 6536
15845 1.3533100318445952 0.84445796844486176 -0.50474967487383804 152 153 135 1.1483540386073667 48 6624 105 6715 104 6588 46 6387 157 5975
62710 -1.6682522911810049 -0.7535003054857371 0.1009221973641458 194 199 192 0.8432567009442542 80 4149 19 4680 133 4986 18 4904
15859 0.2082163652437681 0.85108904664318352 0.18150677011360908 144 142 128 1.6107062439360649 105 5273 112 4657 104 4684
51410 -1.5908384908966504 -0.81521260830478048 -0.043968246924194432 209 212 201 0.093893385465590479 27 7024 26 7381
15892 -1.3628313118787578 0.85306282070046047 -0.28877521023598601 224 228 228 0.86235459949315141 105 996 47 1144 158 919 157 903 103 1083 45 1069 102 1095 44 1085 155 1172 154 1284 99 1177 41 1545
15893 -1.3650690139989292 0.85077760107119449 -0.28992840854645574 224 228 228 1.101422650693245 105 997 47 1145 158 920 157 904 103 1084 45 1070 102 1096 44 1086 155 1173 154 1285 41 1544 99 1176 152 979
58539 -1.4378509356044646 -0.81299157326138927 -0.18775234863016976 0 0 0 0.66314936457077722 22 5369 83 2798
15896 -1.148669702305898 0.85838759224573435 -0.39224514185882015 0 0 0 0.84519806898098326 105 2766 106 1126 107 2896 48 1092 47 1182
15901 1.3056045442682962 0.84220091944340847 -0.47364701413068427 171 172 164 0.47148046503984176 159 1313 47 1216 158 1188 104 1377 46 1258
15902 1.2726562825563588 0.85606145657700039 -0.48238108525214285 136 137 119 0.34839538200937475 159 1316 47 1219 158 1238
65858 -1.9538346123946062 -0.53192106241270543 -0.35682613307667427 214 220 212 1.918726288043159 18 8276 17 8325 131 6644 16 8524 130 6296 14 8636 13 8781 12 8618 73 7485 72 7735
15903 1.3362986328665383 0.838589000502446 -0.53029533613524837 145 146 140 0.30907536942890573 159 1367 47 1252 158 1237 104 1448
15908 1.1657660706949908 0.84691796361651994 -0.59966920002522184 143 147 146 1.7394946873341872 105 1178 47 1308 46 1372
15911 1.3239422503915368 0.85001352998272606 -0.7037464668537059 228 233 230 0.32497901160650727 48 1270 47 1360 104 1586
16031 -0.4109812891587335 0.63809445925035813 0.28405176067650412 118 131 121 1.2506511466387324 105 2722 47 2841 158 2519 104 2822 46 2711
16036 1.399227109401846 0.79311108407807951 -0.35798946235538293 98 101 92 0.38803463333206967 105 1051 47 2900 158 3657
16038 1.3662768868573463 0.85980030674583319 -0.39571852797925139 132 133 125 0.55848517514247265 105 1076 47 2912 46 1204
16109 -0.97989417683240065 0.84056989891803291 -0.18085363312735653 24 28 27 0.97587535392230085 159 3682 47 3920 158 3569 104 3939 46 3771 157 3505 103 4035 156 3801 102 3055 44 2864
16111 1.0766830943876582 0.85922604424940174 -0.30785443787322786 70 75 69 1.534446389369833 107 2859 47 3927 46 3792 45 3818 156 2802 102 3162 44 1207 155 1330 43 1358 101 1391 154 1456
65979 -1.0793482580064251 -0.86393387250947018 -0.57636914957531771 105 106 99 1.0055033912409639 77 1415 131 1406 130 1481
16113 -1.1610463467173773 0.82934936138532434 -0.39311898689023822 128 131 122 0.28461535499115287 48 3882 47 3948
16114 1.2345088079442241 0.76466038401443948 -0.54759203625112929 3 3 1 1.0717061290026595 48 1149 105 2841 47 3956 159 2815 158 1240 104 1380 46 1259 157 1230
16115 -1.4180080944063522 0.8271200254840857 -0.47613802313737053 134 139 133 0.84600890869811085 105 3908 47 3963 158 3585 104 3964 46 3799 157 3524 103 4058 45 3794 156 3814 44 2879 44 3993 156 2771 155 2926 43 3109 101 1259 154 1317 100 1126 42 1121 153 1508
16116 -1.6077952480073026 0.81351923330392173 -0.53208472657057748 61 62 57 0.4318827301827981 105 4696 47 3964 158 3590 104 3965 46 3802
62201 -1.9718127018259091 -0.4174169050311301 0.026890628996479416 226 229 218 0.96285092675115302 80 5931 20 5826 19 7428 79 6820 133 6972 18 7677
16166 1.1508425662293407 0.77297333366258736 0.26301184753933904 155 156 140 1.4995512389125139 105 4666 47 4636 158 4263 156 4529 102 5058
16167 1.1971895890064328 0.57097450702973818 0.23448934832337379 155 156 140 0.055813131817224304 105 4665 47 4637
60845 -1.3754929306226342 -0.86294770445277125 -0.5625559338675642 191 194 185 1.3126479391372905 21 7862 81 7142 135 7193 80 7243 134 7144 20 7844 19 7958 79 7078 133 7306 18 8295 78 6915 132 6776 17 8034 77 7014 131 6581 16 8031 76 6848 15 8173 130 6198 75 6985 14 8043 13 7756 129 6290 74 7316
16171 1.3961027187969732 0.86330915125510055 -0.53914490029463014 216 222 222 1.5300056250152061 105 3955 47 4693 158 4418 104 4779 46 4604 157 4304 103 4200 45 4591 156 4705 102 4462 44 4170 155 4330 43 4555 101 4568 154 4615 100 4733 42 3620 99 3639
16198 1.3195145597435451 0.85911741412544673 -0.1361800338798009 9 13 16 1.0728241327053067 105 5280 107 4790 47 5153 106 5350 104 5257 46 4542 157 4687 103 4841 45 5039
16199 1.2688612872151568 0.78996342492679983 -0.3879567356838417 94 95 79 1.2167171542007189 105 5289 47 5158 158 5217 104 5268 46 5067 157 4737 103 4875 45 4530 102 3180
16200 1.0548595508572152 0.80819315453693963 -0.34286242346975926 17 22 20 1.6900400099877224 48 4659 47 5160 158 4815 105 4689
16252 -0.55130415373602848 -0.62378456465455745 0.32866128972008446 88 119 113 1.6877929129812859 105 5259 47 5633 158 5184
60913 1.5430411056342619 -0.81871458990007961 -0.56060026483094638 13 15 4 0.81741940940168833 80 1159 134 967 20 1203 79 2838 133 2914 18 1243 78 2849
16255 1.420389721636601 0.86055300500543985 -0.41147845825492124 131 141 140 0.78844874318241709 105 5789 47 5666 104 5714 46 5495 157 5133 103 5456 45 5472 156 5577 102 5813 44 5376
16313 1.2788978740467092 0.84829394518661705 -0.39909923208056819 2 2 1 1.4325262095312459 105 6397 47 6214 158 5758 46 6061 157 5670 45 6078
16315 1.4999617449612659 0.72553811417446779 -0.54766151508492245 0 1 0 0.97902897926553278 105 6145 47 6216 158 5913
16316 -1.176906475536984 0.82702374860527361 -0.57080822842844958 103 108 104 1.8666121182293833 105 6401 47 6226 158 5745 104 6259 46 6055 157 5657 103 6466 156 5921 102 6576 44 6236 155 6465 154 6338 100 6680
17949 -1.0840488965470982 0.84059806954584559 -0.56548999299171687 2 6 2 1.0565883618674452 166 6444 115 7046 59 6906 116 5916 60 5964 167 6161
69766 -2.0139010577218852 -0.47777388038306651 -0.46817750046176509 108 110 109 0.85923253555427626 75 1473 14 1267 129 3706 128 3066 74 3516
16334 -1.0789309928371538 0.83509198634963822 -0.36104538722328661 1 1 0 1.6497495441143624 48 6546 105 6618 158 5902 104 6411 46 6209 157 5801 103 6461 45 6059 156 6120 102 6568 44 6229 155 6451 43 6360 101 6374 100 6135 42 5702 153 4671 99 3322
16335 1.5909141790335577 0.8467742999507839 -0.51312609013592114 128 131 112 0.68869604519035477 160 6136 47 6363
17833 1.0522449767185573 0.8502649740783067 -0.42953468686383439 61 62 57 0.53701436053072238 113 5773 115 4882 116 3494
16347 -1.6209743958254725 0.80902369784927219 -0.43947898384278483 41 41 39 1.3078703528288544 158 6037 104 6541 46 6329 157 5927 103 6709 45 6338 156 6324 102 7014 44 6633
16349 -1.4518583390969777 0.73491043629497621 -0.15262058547813909 14 15 15 0.8680452202374106 105 6702 158 6063 104 6565 46 6358 157 5954
64524 -0.99441825970509712 -0.86252547184100847 -0.25634307233500586 9 13 12 1.6477922973528407 79 1063 78 1184 132 2733 131 2719 76 2840 15 1121 130 2685 75 3015 129 3541 128 2839 72 1112
56556 -0.39520541077822308 0.86225709922430616 -0.34214966083333942 0 0 0 1.6722221846458698 49 2898 57 3091
16364 -0.48155498649361833 -0.081451187210807657 0.22913039293042931 5 18 8 0.95857567185674009 105 909 47 1030 158 849
16379 -0.19038203751982927 0.59793222918039313 0.69437852392592003 1 15 9 0.29339101628147035 105 686 159 726
53597 0.91118366259827543 -0.78214310177940349 -0.5094119791379168 39 41 40 1.3742340660624552 139 6683 25 7113 23 7488 82 7084 81 7136 135 7181 21 7852 80 7241 134 7139 20 7833 79 7071 133 7294 18 8278
16390 -0.32132182807806553 -0.51790516197908876 0.324323960772675 79 103 97 1.1759319422348267 47 956 158 832 104 2804 46 2686 157 814
16392 -0.57244937992206391 0.061171676771192209 0.29106895948689826 2 13 14 0.89073154110357589 47 1032 158 840 104 1061 105 898 46 1017
16430 1.3155964241174267 0.85439925881388323 -0.43421934461912415 104 109 103 0.50779638903249447 47 1177 158 1187 104 1324 46 1256 157 1158 103 1293 156 1314
16431 1.3042235952557075 0.84612820562148461 -0.47196115565464797 173 174 166 0.53732257126524741 159 1314 158 1189 104 1376 157 1162 103 1379 45 1306 102 1487
64312 1.5278064824020496 -0.85543627779503284 -0.64908793237234486 143 141 121 2.2212996871837798 81 5895 135 5905 18 7037 78 5601 132 5309 17 5849 77 5627 131 5198 16 5979 76 5495 15 6017 130 4973 75 4879 14 4778 14 5981 12 4769 129 3496 128 3856 127 3942 72 3159 11 927 126 798 10 4996 9 836 9 3390 74 4197 73 2933
16433 1.3953685830856235 0.84713430880923424 -0.51546412152220011 177 178 173 0.39542560415095823 47 1214 158 1235 104 1444 46 1315 157 1225 103 1374 45 1350 156 1379 102 1541 44 1413 101 1631
16434 1.3337236675456401 0.84954456419489366 -0.52562541730471901 150 152 146 0.21506789510670782 47 1251 158 1236 104 1447 46 1318 157 1227 103 1380 45 1354 102 1547
16523 -0.38440860916224162 0.64467749705090183 0.29078722052822908 56 75 71 1.2617712802151777 47 1048 158 2518 104 1077 46 1032 103 1001 45 981 156 996 102 1020 44 993
55614 1.1966205553968343 -0.86355863451811887 -0.64464736559052682 202 205 198 0.59074966039657928 24 1585 137 2975 83 1301 23 1402
16525 0.20868859908587109 0.85322949146826144 0.20250664958595915 226 223 224 0.52433301945596322 107 903 158 2542
16526 -1.2501780823944273 0.84950750445946499 -0.47630247162826755 6 9 3 0.41366298450727312 105 2785 158 2576 157 942 103 1129 45 2728 156 1106 102 1170 44 1164
16587 -0.76756757973248779 0.85991089770235063 0.087548175469819425 191 201 198 0.94905267541762395 105 3880 158 3563 104 3924 46 3762 157 2504 103 2853 102 1059 155 1113
16591 1.450883805313482 0.79061893125239857 -0.37368007719997315 25 27 26 0.74936962513562233 105 2799 158 3656 104 2915 46 2778
16645 0.0603108794464495 0.84249282205085918 0.15615204492295906 185 190 184 1.0148389056479057 158 4268 104 2836 46 2732 157 3497 103 4029 45 1028 156 1028 102 1058 44 1025 155 1110 100 3161 42 1027 99 1135 152 919
16647 -1.586767671775009 0.8333874346031741 -0.3215195453614374 61 62 56 0.84629079379632188 159 4350 158 4280 103 4823
16649 -1.4002647819938498 0.81672074998958111 -0.42661409212327661 5 10 6 1.8890539377535163 47 4677 158 4292 157 3515 103 2883 158 3582 45 2711 45 3791 156 2768 102 3070 101 1256
54232 0.43501531191727366 -0.39518877638198568 0.67009871080568739 20 29 26 1.9281849377092675 25 7482 24 7492
71880 -1.8337259053416499 -0.59654324075429899 -0.010896524249515194 247 252 250 1.062271262813349 75 2967 129 2579 128 2804 74 3225 73 3097 127 2888 10 789
16658 1.301718827740542 0.83211557324213847 -0.5241766888465581 69 75 65 0.9284412483169362 47 4697 158 4393 104 4043 157 3629
16675 1.0955508789135917 0.73762102586810463 0.28106368061525827 203 208 212 1.2956840162003911 105 5271 159 4837 158 4794
18002 0.014055445932824958 0.33233441931753532 0.7526293690226199 250 254 251 0.75880401371813699 166 7403 115 8042 59 7839
19405 0.29134769183563852 0.44736626942218588 -0.44271108951641702 207 206 197 0.64670029845408683 157 984 155 1228
48943 1.9699563162780322 -0.40264307745107381 0.10680619018607065 166 166 158 1.3504270145530397 28 8121 87 7620 27 7497 140 7393
16677 1.141577109483481 0.8407327787428801 -0.21289471565431559 16 19 22 0.8766660113414485 105 4677 158 4813 46 4546
16723 1.2537312417196043 0.8574522751134861 -0.31518072925653623 23 28 22 0.68233618248914851 158 5753 104 6263 46 6053 157 5664 45 6071
65521 1.3913815568754806 0.83840259068685052 -0.45973490710070214 0 0 0 0.36620973108781318 104 2961 157 3596
68372 -0.86968538658140015 -0.84870604683014084 -0.40725861585854017 54 55 49 0.9421626905736421 76 4806 15 6036 130 5006
71180 -2.0853498746293537 -0.19367988010511478 -0.20165131808198403 68 73 66 1.5371466973086456 13 3393 12 952 128 4784 73 5217 72 5516 11 3293 126 4477 10 3466 9 3498 124 4890 69 4844 7 3549 6 3587 123 4706 68 5009 5 3446 2 3546 1 3507 3 3584 4 3565 121 4629 173 4615 63 3770 171 4792 117 3772 168 3562 62 3808 118 3786
48175 -1.1500299972154964 -0.82784220011680487 -0.39581817095396227 234 237 226 0.80596107354193147 29 5867 28 5931 141 6018 87 6224 27 6188 140 5920 26 5643 86 5842 139 5544 85 6276 25 6235 138 5745 84 5846 24 6236 137 5440 83 6029 23 5457 22 6186 82 5862
63996 -1.187404119465034 -0.85440461842288706 -0.51912568220753308 10 15 9 1.4550674965502146 134 2919 18 1269 78 1275
16724 1.4045959996797732 0.81643414163004868 -0.38997851745835388 11 10 6 0.72554700810988082 47 5973 158 5755 104 6037 46 5821
16733 -1.0761226884413342 0.84086859907836653 -0.35631187205665127 6 10 9 0.91872936593414467 105 6619 158 5903 104 6412 46 6210 103 6462 157 5802
16742 1.5433076481405728 0.85700997664850187 -0.59211280494071983 174 180 176 1.2137787997038216 158 5988 104 6435 104 6487 157 5885 103 6610 45 6244 102 6951 45 6309 44 6592 155 6852 43 7165 101 7097
54746 -0.41757027481804976 -0.55859465992507373 0.32256983264292566 13 24 16 1.8387989261264619 138 4189 141 5297 84 5793 25 3269 24 5406
16755 1.3570326071031604 0.85307935705506965 -0.47597292103561933 215 216 203 0.84468414650005164 109 6131 108 6395 162 6283 107 6333 160 6127 50 6109 49 6340 106 6432 48 6321 105 6402 47 6217 158 5915 110 6335 53 6065 109 6132 52 5904 107 6334 55 6360 58 5557 56 6024 165 5837 113 6415 114 5660 112 6420 111 6526 166 5345 110 6334 53 6064 162 6282 52 5903 51 6065 108 6396 160 6128 50 6110 49 6341 104 6273 46 6064 115 4881 59 3386 157 5813 103 6471 45 6080 156 6273 156 6274 103 6472 102 6813 102 6814 44 6453 44 6454 155 6693 155 6694 43 6988 43 6989 101 6937 101 6938 154 6967 100 7307 42 7289 41 7382
54472 -0.29125572878846356 -0.14574170706474845 0.29494124431160007 0 9 0 1.5860452332448851 138 1073 84 3020 24 1213 26 1295 137 3926 83 2745 23 1063
54600 -1.1619808795166007 -0.85165069445013031 -0.48978224775879087 10 12 4 1.0944367757731164 138 4268 84 4333 24 4523 83 4792 23 4444 82 5042 22 5394 135 5908 21 5925 80 5963 134 5766 20 5873 19 5867 79 5718 133 5838 18 6180 78 5609 17 5844 77 5635 16 5998 76 5513 15 6052 130 5500 75 5708 14 6031 13 6153
16756 -1.2395791287839886 0.855755828141613 -0.41206670802363082 109 110 103 1.6257943912355879 105 4683 158 4291 55 5883 58 6198 56 6051 164 5633 165 5871 114 5703 57 5661 112 6447 111 6025 166 6019 110 5842 163 5491 53 5554 54 5634 162 5397 109 5638 52 5920 51 5683 108 5533 161 5252 107 5480 160 5102 50 5728 49 5263 106 4747 159 4355 47 3949 158 3581 48 4683 104 3955 104 4697 46 3784 115 5913 59 5789 157 3514 103 4057 45 2710 156 2766 102 3069 44 2877 155 1189 43 1229 101 1253 154 1314 100 1124 116 5879 60 5927 167 5582
16759 1.3521641212951487 0.85586583084836165 -0.58476778760644099 5 9 6 1.7378006514092637 105 4723 47 4711 158 4419 106 1307 48 2891 105 3958 104 5340
16763 1.3587904281342353 0.85252143482999132 -0.43095815326248349 19 20 13 1.214348253048408 47 4676 158 4374 104 4020 157 4276 103 4134 45 3893 156 3907 102 4396 44 4084 155 4264 43 3312 101 3365 154 3398 100 3440 42 1466 153 3651 99 1541 41 2021 152 1526
16765 1.4043158620676965 0.81993154794936896 -0.50488709655591713 0 0 0 0.65479061222029367 47 6519 49 6611 160 6430
17132 -1.3464322155488424 0.84525086377199687 -0.30716252542305456 191 201 202 0.75024796551662054 158 5901 104 6255 46 6046 157 5442 103 6268 45 5843 156 5911 44 6223 155 6088 43 6354 101 6369 154 6324 100 6656 42 6364 153 6132
66209 -1.2092825663072233 -0.80589989549416796 -0.36474871364219791 123 128 124 0.91241639457524371 18 1202 77 4053
79240 -1.7397655541186898 -0.50880954601367279 0.0088365603671857248 47 53 43 2.7426104726922418 125 6817 70 6623 8 6690
16817 1.3942231954248605 0.85334217397951206 -0.51267869350627471 171 172 167 0.042394913850272047 47 1213 104 1443 46 1314
47984 -1.4739549612422727 -0.83986328022364187 -0.12243604373163457 34 36 27 1.554234021607658 143 3142 28 3445 141 3126
64918 -1.1617709397102567 -0.84420874662618517 -0.67254145065079673 229 239 240 1.2691054502270247 133 7013 132 6643 131 6454 16 8034 76 6854 15 8176 130 6201 75 6987 13 8181 12 8045 129 6291 128 6778 73 7102 127 6881 72 7343 11 7700 10 7909
69605 1.1900674529734094 -0.58492210512909915 0.58412012461109164 2 6 3 1.4106487929397904 16 7980 75 6665 13 8120
16818 1.3220104381510944 0.85140977348930102 -0.52082225990157693 10 11 5 0.22651801871899679 158 2720 104 1449 46 1320
54309 1.5506422077011857 -0.84864676432567199 -0.21698728367712777 103 99 90 0.21569556314075491 139 1176 84 1272 83 1108
16915 -1.3730852896803913 0.83313030409316258 -0.52648658228556722 159 168 164 0.81016483519276594 105 3914 104 2881 157 2549 103 1133
16920 1.5936746391148555 0.86158564479386679 -0.42140239525576578 174 176 163 0.49001441502844723 160 1061 104 2958 157 1222 103 1365
16929 1.1562419147730698 0.85792365926147873 -0.58018394932539952 146 151 147 0.31552480288151419 158 2752 104 3009
16986 -0.42117291248488359 -0.63678540743172296 0.30637224453933593 50 77 72 0.4248854005808525 158 3533 104 3901 46 3733
16987 0.20989477255606742 0.82928903310348889 0.19778703999024524 211 205 209 0.95723692093740542 105 3873 160 4500 104 3920
17022 -0.37735297803362511 -0.62209328120843188 0.29424514875196034 3 9 9 0.59882714283423832 158 4788 104 4669 46 5035
47981 -0.80697103296190276 -0.84916017565158464 0.083508966603110607 118 123 116 1.2523711776564532 29 1225 88 3117 28 3434 141 3077 87 3268 27 3262 140 4341 86 4447 25 4563 138 5031 84 5100 137 5419 83 5453 23 5433 22 5353 82 5019 136 4834 81 2943 135 4129 78 5572 132 5963 77 6288 131 5774 74 6492
65757 -1.3434623385498838 -0.81895688344370254 -0.4800632504412562 27 29 26 1.4610820587477498 79 4879 17 5843 77 4946 131 5244 16 5996 76 5528 15 6049 130 5098 75 5707 14 6052 13 6151 12 6071 129 5072 128 5553 74 6128 127 5041 72 5564
17023 -1.4079945146768649 0.81882648807830527 -0.1603766586785752 12 16 12 0.85934531983617113 158 4796 104 4689 44 3979
68875 1.9383291328244459 -0.75035539150004482 -0.085158762100270763 209 202 190 1.8955587807998819 76 4767 130 4326 75 4014
17050 -0.60763423261572069 -0.29660775590635435 0.2940715497091056 0 18 14 1.0038775704901406 158 4791 104 5222 46 5043
17114 -1.28144787143298 0.8547886147996836 -0.50948305931830251 182 188 184 0.87672736574996102 158 5526 104 6032 46 5818 157 5450 103 5920 45 5463 45 5852 156 5566 102 6236 44 5849 155 5599 43 5823 101 5862 154 5820 100 5481 42 5712 153 5574
17115 1.4067218036217188 0.80676429584874398 -0.39597072372731429 18 17 15 0.99223417384362433 158 5756 104 6036 46 5820 157 5457 103 6290 45 5859
17118 1.2566297444132926 0.85577524038398045 -0.61454518698177729 145 151 147 0.99777309286887139 158 5765 104 6046 46 5831 157 5480 103 6296 45 5868 156 5625 45 5510 102 6295
63058 -1.2124559777261552 -0.84486006984231743 -0.48929932737922294 7 8 5 1.8100363682192313 134 1019 79 2853 133 2934 18 1266 132 2842 77 2974 16 1086 15 3368 14 3382 74 4525
64461 1.3367602128517191 -0.84692083950427799 -0.52013270045047855 31 31 23 1.008437520311166 27 5603 140 5287 26 5715 85 5796 25 5549 138 5763 84 5864 24 5484 137 5451 83 5490 23 5490 22 5408 82 5882 136 5625 21 5913 20 5846 19 5859 79 4870 80 5099 134 4933
17141 -1.0058149453629914 0.86501533702870004 -0.43403793492656262 117 123 112 1.3835677053399917 48 6551 105 6621 158 5976 104 6415 46 6214 157 5804 103 6594 45 6231 156 6124 102 6804 44 6437 155 6668 43 6960 101 6925 154 6703 100 7053 42 7246
17143 1.2215039127797631 0.83729877267640962 -0.46375899304627372 173 176 154 1.755910134701151 105 6553 104 6430 157 5880 103 6604 45 6305 156 6329 44 6583 155 6845 101 7091
17152 1.4518154622249473 0.48674370893960678 0.71171522502607321 216 224 226 1.8652176708331969 47 6441 104 6507 157 5896 103 6667
67919 -0.95977191699415132 -0.85990671459288415 -0.41436617636951667 117 119 108 1.7576952497877314 131 6220 76 6124 130 5483 75 6283 14 6914 12 6044 129 5503 73 5904
63638 1.2255632283503719 -0.78250683621972228 -0.53197335128103518 3 0 0 1.0846869742990422 19 4716 133 4097 18 4933 78 2833 79 2835 132 2711
17155 1.8458680341786704 0.7012272545386643 0.17744126158015752 165 0 5 2.2872107943167017 105 6674 104 6554 46 6350
17156 -0.67257302005505082 0.83869410112778886 -0.26081381959801292 183 192 187 0.83935402856051833 106 6703 107 6898 104 6555 157 5940
17157 1.3187826463090995 0.57433230207061803 0.66222917076097576 0 0 0 2.8843657336201471 47 6510 107 6904
17212 1.3043247742159256 0.85066217339435657 -0.47011627365780384 163 164 155 0.43590524000041886 47 1217 46 1257 157 1163 103 1378 45 1305 102 1488
17217 1.0319485295876845 0.85444880251662569 -0.52833924225157536 64 65 60 0.42987202047338013 104 1383 46 1327 157 1165
17321 1.8477908265893257 0.42600074369776875 0.39034009498285405 85 90 84 2.5093211352082276 104 2828 46 2698 45 4481 156 3761
17322 -0.43671051702852393 0.62640907367819798 0.28260584274501588 150 163 154 0.58139032351464448 158 3546 46 2712
17324 0.032470643750423571 0.83697863408006079 0.15187345925106382 144 147 130 1.6810021014597682 47 2850 161 3882 46 2733 108 2848 157 3498 44 2823
17388 1.5166716986134019 0.55916428178444089 -0.16392545515130078 5 7 6 1.8363345335005257 47 3914 46 3770 157 2555
17392 1.3680999382516628 0.85123088019852788 -0.40565488358632423 138 141 132 0.90939840262310623 104 4019 46 3816 157 3595 103 4133 45 3862 156 4625
47289 1.3924325631289085 -0.84016838577034592 -0.42082146592862235 253 252 252 0.9683840576598316 29 1702 142 1720 88 3401 28 3687 141 1430 87 3521 27 1603 140 3183 26 1621 86 3430 139 1370 85 1608 25 1532 138 1320 137 1154 23 3157
17439 1.1257382883777187 0.80651174061471131 -0.23906776163432605 15 19 18 0.45921864056392098 46 4547 157 4223
59397 -0.306008967626615 -0.47020451112311029 0.30789731474525828 15 28 19 0.82806000065635532 82 995 135 2911 136 866
17441 1.0650261408876525 0.85547823961186742 -0.32575723133413598 63 65 60 0.93877896900891633 104 4716 46 4564 157 4234 103 4101 45 3819 156 3838 44 2929 154 1457
17540 1.1334094575282043 0.80134788806172219 0.26423736789081742 180 181 167 1.6053118812187026 104 6020 158 5732 46 5802 45 5833 156 5905 102 6559 44 6204 155 6072 43 6701 101 6357 101 6686 154 6692 42 7233
17557 1.2661144222396246 0.86016489088026227 -0.17790860968112596 71 73 70 1.3775809723708652 160 5884 46 6048 44 6436 43 6720 101 6701 42 7250 152 6943
52032 1.3507706229541612 -0.82815057371777956 -0.42532808008724932 92 93 85 0.67774321053842035 86 1603 139 1369 85 1607 138 1316 84 1386 137 1153 83 1151
17582 -0.74928451547665165 0.78326692028198053 -0.54514596299066387 48 52 51 1.297798275280504 104 6422 46 6217 157 5809 103 6597 45 6233 156 6127 102 6806 44 6441 155 6670 43 6972 101 6929 154 6713 153 6977
17593 1.3203421618070341 0.48811786039931243 0.66588239790791859 205 215 217 0.18913741066509493 104 6574 46 6372
63207 -1.8986543003683996 -0.47054546722516288 -0.014638524005651323 200 201 195 1.4591111490346955 19 4681 79 4854 133 4988 18 6134 78 5577 17 5814 77 5605 131 5780 16 5972 76 5471 15 5994 130 5458 75 5643
17626 0.31649474851766263 0.67151573913742335 0.34871358051640011 19 31 25 0.72716347908083367 166 769 115 717 59 794
20024 -1.4102787538898496 0.85427285047469603 -0.20783455846333287 71 73 68 1.5455853664958665 45 3783 156 2749 102 3056 155 1161 101 1218
62860 -1.2694100588882775 -0.83257277403459673 -0.30949614493606825 6 8 5 1.4771803021989403 20 8293 19 8449 133 7512 18 8760 78 7087 17 8484 77 7181 131 6642 16 8519 76 7029 15 8615 130 6292 75 7228 14 8502 13 8653 129 6336 128 6772 74 7636 73 7282
17627 -0.53149837227334484 0.63665533887175274 0.26028246665415461 250 253 245 0.49371434138895248 166 834 115 735 59 851
18856 0.43242988882270955 0.13907497439433439 0.48253791917658934 2 11 10 0.3035959466613099 46 6382 157 5969 103 6772
17632 1.3585314675138325 0.87134150576357394 -0.075046503472082374 0 2 0 0.35272568948919769 58 1064 116 909 167 1105
17633 -1.54133139036205 0.77110903942337583 0.16367865169278439 51 55 56 1.1201249776140099 166 946 115 807 59 904 116 938 60 1102 167 1146 62 1123 118 3594
17637 1.4757177497158391 0.83702961572668233 -0.29999692426823205 87 91 77 0.17295066951099289 58 3310 115 858 59 985
17761 1.1104458859460022 0.82846208465085391 0.21915761485851049 232 238 237 0.70689070941289589 56 4423 115 3219 59 3242 116 3320 60 3383 167 4505 61 3590 117 3540 168 3306 62 1011 118 961
55739 0.050457336334593865 -0.75168313658910779 0.16779958642666545 28 34 24 1.4734569779671105 137 4747 83 4753 23 4404 22 4352 82 4111 136 3994 21 3249 20 3288 18 1084
81202 -2.0571192453402967 -0.19427246004573295 -0.11967684185123081 28 30 27 1.2764798212267296 69 5616 7 5119 5 5012 4 5161 3 5045
17831 -1.8133954704463628 0.55068034753685469 0.014257398410278115 52 58 48 1.3111600232666101 166 4545 115 4859 59 4751 167 5508
83230 -1.5556884756615184 -0.77087478529325859 -0.4008291112476296 223 230 223 1.2550092917733962 123 7441 5 7866
17915 0.41782377778782087 0.51813863177618102 0.44052391151526932 70 73 62 0.12337668497880452 166 6369 59 6321
17916 0.41782377778782087 0.51813863177618102 0.44052391151526932 70 73 62 0.12337668497880452 166 6370 59 6322
55190 1.1162011909608862 -0.788881176074545 0.29101386009189578 224 223 222 2.0285203580120785 85 5102 83 3876 137 3928 23 4401
63355 -1.9691008703921578 -0.31212107880676404 0.0059451120750204662 80 82 71 0.84893643861625889 19 7430 79 6821 133 6973
17917 0.31060489770845773 0.52869003519698254 0.39086396408243268 58 51 41 2.1304823805196218 58 5485 115 6474
17919 -0.42407566364912386 0.6233965158904653 0.35255269459025523 12 19 11 1.9549826345234447 166 6380 115 6482 59 6340
17925 1.2021626525511038 0.86556665778415176 -0.62221053899566137 215 225 227 1.5112018193274313 58 6705 166 6412 115 6545 59 6403 116 6467 60 6508 167 6523
17966 1.5186755387699684 0.82971740965728025 -0.39962431036022694 223 231 234 0.66265181764527459 166 7030 115 7394 59 7203
66701 1.2632483386443008 -0.82594620575116839 -0.31055921030975464 2 4 3 0.28898342530781757 77 4017 131 3732 76 2809 130 1152 75 1044
17968 -1.9199838448152973 0.45662522274004697 -0.031329798685096708 228 231 224 1.2335794531429787 58 7044 115 7397 59 7206 116 7244 60 7242 167 6848 117 7441
17970 -1.789276445596244 0.74659843631055278 -0.30789424277424388 21 27 27 1.3231014550378448 57 6431 166 7042 60 7531 116 7521 167 7099 61 7826 117 7745 168 7322 62 7557 169 7655 118 7780
66705 -1.1537655139689731 -0.83835389667821847 -0.34793352864254851 134 136 126 0.18957394953913592 77 4054 131 3798
75229 -0.30001133638756544 -0.48387144872171134 0.71026381676341044 99 109 118 1.6389234921596008 127 6612 72 6993 73 6756 9 7593
17977 0.28812914858722932 0.66436340628293955 0.36813268579778535 21 32 30 0.060885539518224993 58 7031 115 7678
53876 1.0056976875757622 -0.56142361842388355 0.67682384360591719 218 213 203 0.98204543486463758 85 995 138 2822 84 2874 24 996 137 2676 23 902
17992 -1.7671636139017668 0.74112660232310146 -0.18728179783601615 22 29 29 1.8977251291413337 57 6416 58 7515 113 7601 166 7237 115 7861 59 7675 116 7696 60 7694 167 7255 61 8014 117 7916 168 7607 169 7937 118 7871
18008 -1.9148995367032549 0.48287246989227162 -0.023614986712360935 56 61 55 1.2487414480096855 55 923 58 3335 56 3136 164 2936 114 3403 112 958 111 947 163 914 54 1143 115 3335 58 1165 166 1070 59 3389
61697 0.41942930748988566 -0.72122578584222852 0.38703550386549973 4 8 7 1.0681628907450857 81 7127 134 7127 19 8242 79 6807
18012 -2.0431011226297762 0.30190187310257 -0.49859851044515519 17 19 15 1.9510549953461134 114 1315 166 1425 116 3729 59 3614 60 3770
18047 1.5739149372173875 0.85564281882493531 -0.58611239585554031 216 218 213 0.53628926095887253 58 3367 114 4778 166 4542 59 1061 116 1135 60 1279 61 1104 117 1103 168 1258
18048 1.0241509520980114 0.7694850778952248 -0.51412395782690878 0 1 0 0.12287041372773912 165 4393 59 1063
48226 0.22817948717931022 -0.83864416525853391 0.1509168344049712 228 230 225 2.0696528576278501 29 6528 28 6600 141 6468 87 6683 27 6684 26 6830 86 6631 16 7491 130 5449 75 6227 14 6863 142 6388 129 5443
63359 -0.88665181713269337 -0.85455926275097227 -0.53367561538950992 42 43 38 1.6659964121126709 19 7454 79 6845 133 6996 17 7439 77 6327 131 5821
18144 0.55404637807449642 0.61329051558620518 0.54703313360976979 6 5 3 0.20741432274476729 166 4360 59 3182
18164 -2.0115224371015654 0.27364614515671454 0.049967883931552604 63 68 64 1.2997953764530739 115 3296 59 3350 60 3479 167 3330 5 3242 2 3271 3 3354 121 5315 174 5025 173 5321 120 4778 64 4668 63 5074 170 3521 61 3727 117 3657 62 3685 169 3683
18171 -2.0884758339002767 0.14009941136654216 -0.18099236203114388 46 51 47 0.70300169862284434 115 3401 59 3434 116 4893 166 4574 7 5111 8 5203 61 5249
73024 -1.0362529492285888 -0.81425787893016477 -0.57555756097775468 25 27 15 1.1937886391265473 13 1288 129 4399 74 4528
64455 1.7075933899349367 -0.32644071220429111 -0.57772774509669522 192 188 181 1.9715986628574922 79 7349 18 8914
18172 -2.0859547261137581 0.084579720074468595 -0.19043212045152635 46 51 46 1.2942566324946077 115 3402 59 3435 116 3534 60 3576 6 5192 67 5650
18179 -0.98150173272811325 0.79931528902757432 -0.57347162729791046 142 147 141 1.6112164001957314 115 3573 59 3609 167 1609
18248 -1.2088536668647485 0.82914262427216556 -0.48871199266570914 1 5 0 0.23602782977551626 115 5035 59 4878
18319 0.3855087669518994 0.48894729257319297 0.4683117848117444 33 34 29 0.051368870804270925 166 6371 59 6320
76652 -2.0673930929118955 0.23757316603447712 -0.17708506000493252 43 49 45 1.1656131842448303 126 3145 71 3151 9 3471 125 4437 70 4767 69 5606
18321 0.52013789665676879 0.36967762577367302 0.40650699605684282 58 52 40 0.40765603960172914 166 5885 59 6329
18325 -1.332565730556478 0.85688539841970623 -0.22399417177629816 53 58 53 1.451621915165088 115 6550 59 6411 167 6117 61 5246 168 5804
67833 -1.3035884162276721 -0.86675204642918702 -0.42101307195050813 112 113 104 1.50237194941427 16 4815 76 4820 15 3363 14 1205 74 3360 128 1360
18326 -2.0459933506592649 0.39990990562293544 -0.43447268418618173 35 40 36 1.3068941252440722 115 5932 59 6463 116 6529 60 6571 167 6165 117 6750 61 6824 168 6847
18404 -1.011944900119458 0.85276137537453944 -0.11552128208235264 6 8 5 1.5474982122640271 49 6602 115 8073 59 7869
18407 -1.9820004034869345 0.44890660144155198 -0.19970486495840936 164 175 167 2.2431238408857754 115 8091 116 7899 60 7883 167 7451 168 7722 118 8002
18416 0.91293344421584488 0.77795450198184946 -0.23950911236357178 175 183 179 2.0179593938236957 55 7318 164 7055 113 7933 111 7439 163 6893 109 7051 56 7501 58 7606 114 7788 162 6901 165 7255 113 7961 161 6602 107 6885 52 6720
62858 1.5874195832409101 -0.42150373761869736 0.63845858585718929 0 0 0 2.0507682679487704 135 7311 136 7106
18419 -0.25405584285236343 0.46215846346724304 0.72652898822931633 163 170 169 2.8455114461445321 56 4337 165 4219 113 3076 59 5616 58 6085 165 5755 114 6226 57 5558
18443 -0.43166509876230164 0.64876119230636931 0.59533719800627349 6 18 14 1.0096006627061969 158 766 157 673 103 831 45 2573 44 881 43 989 101 969 154 3039 100 879
18458 -1.2449987392641955 0.85408474127087985 -0.47372717950194232 8 9 4 0.14694490493088294 158 2577 157 941 103 1130 156 1107
18462 1.3859739728349896 0.86413217804261067 -0.15992282398201574 81 85 81 1.1060709249018128 158 1011 157 993 45 1104 156 1118 102 1247 43 1285 101 1343 153 1615
18468 1.4257537751942078 0.69356994193828603 -0.41284234802421715 36 36 34 0.21033117420682237 46 1162 157 1109
18478 1.3107730374583495 0.85631460006080173 -0.52023263755007376 216 222 212 0.91206528173607637 46 1321 157 1228 103 1382 156 1381 102 1548 44 1419 155 1575 43 1577
68370 -1.921118382535882 -0.45151343029158864 0.0099284418094031917 47 53 39 1.93037574307488 76 5470 15 5993 130 5836 75 5640 14 6874
18596 1.4015676898704561 0.85184449006837737 -0.42833485341892302 180 185 181 0.7263579762260669 158 1182 157 2671 103 1289 45 1301 156 1309 102 1483 44 1356 101 1517
18603 1.5598849187893218 0.83212570421037735 -0.55020510708482273 61 66 59 1.5383619813369684 104 1513 103 1468 44 1458
18670 1.4258003122870213 0.85386042202574519 -0.46659438961199673 181 183 175 1.0402515719017322 48 2852 157 3626 45 3891 156 3938 102 3274 44 3097 155 3160 43 1572 101 3412
18671 1.3824359772816284 0.84669305612161661 -0.51887306161241498 2 3 0 0.9947843711377562 46 2841 157 3627 103 3027 45 3916 156 3940 102 3323
19836 1.4853676603660932 0.85723285794975734 -0.68916277467111364 213 222 224 1.2490549928779167 103 3149 104 3135 165 3134 110 3032 109 2923 51 3973 108 2942 108 4098 107 2942 160 3851 50 3087 50 4045 49 4037 106 4070 48 2918 105 4015 47 4009 158 3813 104 4153 46 3935 157 3728 103 4266 45 2985 156 3086 156 4048 102 1753 103 1592 44 1573 44 3206 101 1804 154 3582 100 1689 99 1898
76808 -1.3764870727317535 -0.83615946359658999 -0.55067596834413213 253 251 245 1.6469735646634815 126 4568 71 4620 9 1384
18710 1.0073949188806601 0.73403583961107588 0.26368630857970732 58 71 61 1.3428676444284775 158 3558 157 4182 103 4813 45 4489 156 5082 102 5704 44 5326 155 5565 43 5773 101 5180 154 5786 100 5441 42 6337 153 6102 99 5996 41 5870
64970 1.2249762858033706 -0.8377579343014302 -0.6201431678640742 255 255 239 0.49228268599053215 79 1152 132 1194 77 1272 131 1202
84566 -2.0523523306590157 -0.19171458664867005 -0.10780401702638 64 66 63 0.16183788881758468 9 891 4 1180
18750 -1.0349079488129771 0.86069477319969878 -0.19898718390031231 87 91 85 0.80761238375042455 46 5485 157 4680 103 5420 45 5030 156 5091 102 5709 44 4756 155 4967 43 5159 101 5194 154 5233 100 4552
57559 1.8939973230327818 -0.72353473154549908 0.064909677245914676 109 6 9 2.0152276016946096 83 6865 22 7555 82 7219 136 7036 136 7114 21 8160
74229 -1.9177487571385425 -0.45397499412929665 -0.0058434097154856377 28 33 23 2.1040211108218969 128 2800 127 2884 72 3207 11 866
18752 1.380537629916917 0.84703286840467451 -0.14097964544405933 12 21 20 0.75972760823384244 46 4541 157 4686 156 5103 102 5093 45 5038 44 5356 155 5604
18757 1.269633724522558 0.80069715309535849 -0.3822849294555718 112 109 96 0.80746739607636409 46 5068 157 4738 103 4876 45 4531
56054 -0.29640879676235971 -0.48685779671419377 0.31584430767618338 3 14 4 1.2444132477910432 87 1155 83 2743 23 1062
18779 -1.3938110284202514 0.84960574217083951 -0.6041034921428402 104 109 102 0.42118824184434578 46 5500 157 5108 103 5923 45 5466 102 5735
66615 1.3098110530032532 -0.8098418225553764 -0.43169607991678699 225 222 217 0.65940004637416638 77 2884 131 2680 16 947 76 2825 15 1093 130 2624 75 2974 14 966
18825 1.5571619759710504 0.85796738582761944 -0.44081499710915245 25 30 24 1.7900767606634191 43 6727 154 6721 100 6707 154 6365 42 6420 153 6196 99 6576 152 5853 98 5503
18855 1.5399248198039799 0.85124440994320827 -0.15111244379333849 1 4 7 0.87377154788198585 46 6375 104 6581 45 6407 156 6423 102 7118
47814 1.706313750604737 -0.76009504292056973 0.22407654308418887 194 2 4 1.1745458671334357 88 1260 142 1280 28 1281
18859 1.3739321079029914 0.85148389296015847 -0.50238517224796708 0 0 0 0.89370378056884503 106 6725 158 6078
18861 0.93829066946801187 0.86598555698055846 -0.26480393411944153 171 174 173 1.3291341870850388 46 3793 105 3902 58 1151 56 4506 164 4191 113 3305 114 3418 112 4714 111 3106 110 4288 53 2974 54 4222 109 4121 52 4089 52 4862 51 3919 108 4914 107 4802 105 4682 47 4662 46 4557 157 3539 102 4307 44 4000 43 4377 101 3248 154 4422 100 4594 42 3300 99 1291 153 1626 41 3680 152 3257 98 1142
79241 -1.7710173034976688 -0.49217567266495671 -0.029029031287638299 48 58 50 1.8187347065381614 125 6442 69 6613 124 6217 7 5930
18912 -0.18339297665670506 0.85699461679343003 -0.35261207513635223 4 8 7 1.4224503485215056 110 941 103 1126 116 1200
56331 1.5184546183012753 -0.81682611205926547 -0.50911608950425591 0 3 2 1.6251340208621787 84 7229 137 6886 83 6875 82 7300 136 7050 81 7280 135 7332 21 8348 80 7371 134 7318 20 8300 19 8254 79 7065 133 7441 18 8585 78 6902 132 6614 17 8329 77 7004 131 6202 16 8007 76 6592 15 7670 75 6249 14 7589 13 7085 130 5832 12 5987 129 4925 128 4688 74 5118 73 5064 127 3909 72 3112 11 5843 126 757 10 3362 9 792
18913 -0.99054973314280648 0.85617453125476339 -0.51106270603054404 3 4 2 0.26550778454252966 46 2783 157 2560 103 1127 45 1142
56924 -1.1735193333687541 -0.84238419192690417 -0.25772492006251879 129 135 121 1.6770424150433352 22 7557 81 7342 135 7428 21 8337 80 7431 134 7434 20 8295 19 8444 79 7256 133 7509 78 7084 132 6827 18 8755 17 8481 77 7182 131 6637 16 8520 76 7026 15 8617 130 6287 75 7225 14 8498 13 8655 12 8493 129 6379
18914 -1.3923783134280163 0.82334607641238655 -0.51534124268162529 1 7 1 0.39225525636944814 46 1173 103 1134 45 2730 156 1131 44 1168
18921 1.5405943787629424 0.85942526483773807 -0.28272228351867768 29 30 25 0.60643692791612558 46 1160 103 1192 45 1195
46445 1.9880128390118299 0.42588423756302152 -0.11995417710677037 169 170 166 0.85941271833562305 89 6493 143 6788 29 7060 142 6885 88 5788
18931 1.3142695940835594 0.84357193357101423 -0.46797997926164947 2 6 1 0.51601936671398352 157 1161 103 1294 156 1316
82018 -2.0466274839099339 0.031600070858343904 0.04694986032305231 77 77 75 1.2470216155641718 6 3378 124 4659 68 3241 67 3069 122 4149 123 4440 1 988 3 942 66 3165 121 4339 174 4084 65 3370 120 3398 172 4523 64 3397 119 3569 171 4593 61 1132 169 3690 118 3674
18932 1.3068681047714843 0.85760371674838609 -0.45678646853775878 6 8 2 0.64560977717862134 47 1215 103 1296 156 1315 102 1486
18939 1.4348875947140471 0.85356819261286743 -0.45412934433249752 105 106 90 0.46710461284818516 47 1207 103 1369 156 1375 102 1484
66492 0.51829203424364345 0.72269889398524811 -0.35126743420671019 0 0 0 0.5606798963951759 50 1311 154 1398
77645 -2.0177641593140869 -0.21381362715412539 0.072414755708232373 59 61 58 1.4153578789604275 10 693 126 3023 9 772 8 3424 7 794 123 2953 68 3198 5 821 67 3011 4 895 2 958 1 905 3 838 121 2976
55682 -0.38963128669210173 0.77214468582173179 -0.39846888977285316 0 0 0 1.3610920792473542 112 3324 164 4218
19063 1.6790912506970774 0.73703610951475107 0.27121144472511088 155 90 99 1.0822835402626578 157 2509 103 2855 45 2679 156 2721 102 3046 44 2810 155 2879
19064 -0.087303806711734655 0.86412073985266358 -0.3130837495532573 105 101 75 0.74759249749465029 51 2912 103 2890 44 2873
19145 1.5663028544881143 0.8451556980316367 -0.21355595741515923 18 24 24 0.92595860320820822 104 2901 103 4076 45 3807 102 4330 44 4779 155 4996 101 5254
66420 -0.78885254791913439 -0.61317378068765904 0.31517134994077955 0 0 0 2.4610839776160924 18 8746 134 7464
19150 1.6329961295431636 0.84244027173818781 -0.28487495086672782 21 27 28 0.99217384475186754 157 3573 103 4117 45 3832 156 4591 102 5168 44 4785 101 5287
19152 1.3337725576375286 0.84645801765847439 -0.4279375233807024 8 9 6 1.0654834474639903 157 3598 103 4135 45 3865 156 3909 102 4378
71692 -1.7327678655922913 -0.47477452553458704 0.024090278227740864 203 208 203 0.83194666327528732 13 8650 12 8286
19171 1.2511016345313015 0.85241633420464857 -0.73972101218131259 0 0 0 0.18218030405919258 48 2941 107 2971
19263 -0.64159461073526558 -0.67123063408285544 0.39608033426755052 0 8 1 0.89175527413227051 46 5028 157 5081 103 5381
19396 -0.81529470182805819 -0.064848135698931275 0.3812334983550888 2 8 6 0.85091337965694791 103 938 157 793 45 940 156 958 102 960 155 1018
19399 0.98955271514592913 0.73060006879529926 0.26587678731566838 13 23 14 1.5985493883540927 103 1032 45 1006 156 1005 102 3019 44 1006 155 2866 43 1106 154 1183 100 1035 42 1001 153 1343
19749 1.2801521532757689 0.84124279129235124 -0.5279955083033927 3 5 2 0.098887785566576208 103 5941 45 5487
55474 1.344865902498025 -0.6570219838083583 -0.12194210183903906 3 5 4 2.35493571614083 27 1372 137 1074
19401 0.045917200109286113 0.80728064842350022 0.17554454824258153 44 51 43 0.97355611533355813 103 1036 157 879 45 1027 156 1027 102 1057 100 1038
19406 -1.417776062553139 0.81998717023305467 -0.50640798365237305 129 134 128 0.24425654502636598 157 2548 45 1119 156 1108
19417 1.3008744932391876 0.85823876505425079 -0.49359515203739568 197 201 196 0.98551344508980954 104 1379 45 1307 156 1383 102 1489 44 1417 155 1512 43 1576 101 1586 99 1625
47140 1.9074679812918902 0.037736847678100344 0.4044047547861882 113 119 118 1.1949844860980028 29 3372 142 3375 88 1178 27 3195
19512 -0.82808292499437797 0.027153476558930575 0.38069567466377469 0 3 4 0.9673061106729538 103 2807 45 2620 44 2769 155 2822 43 1026 102 961 101 1105 42 3156
19545 1.4013753975571737 0.82841299847570937 -0.5882606186497823 0 2 0 0.94543060573120308 103 4202 45 2927 156 1448 102 1614
19634 1.4922344959994966 0.8044758735262928 -0.50286312518504361 26 21 18 0.96696227876656926 103 4159 45 3915 156 4681 102 4422 155 5092 43 4506 101 5359 154 4574 100 4731 42 4912
76543 -1.2375297973119752 -0.83572932229349239 -0.47788845836579408 243 244 232 1.5822725918330349 126 3310 71 1497 10 3539 9 1258 125 1364 70 1565 8 1301
19684 1.3960780123066874 0.86056378958453283 -0.54216834070308406 235 240 234 0.24188480015241337 103 4201 45 4592 156 4706 102 4463
64201 -1.8068194916430436 -0.60463082537994561 0.0052769068054130163 224 229 222 0.44238618351862813 79 4855 133 4989 18 4908 78 4751 132 5303
19748 1.3026100915012226 0.85904283712699148 -0.46801955539886658 120 117 108 0.23100661035330627 103 5940 45 5479 156 5578
